576.000000 0.000000 8.000000
576.000000 -1.109400 9.664101
576.000000 -2.218801 11.328201
576.000000 -3.328201 12.992302
576.000000 -4.437602 14.656402
576.000000 -5.547002 16.320503
576.000000 -6.656402 17.984604
576.000000 -7.765803 19.648704
576.000000 -8.875203 21.312805
576.000000 -9.984604 22.976905
576.000000 -11.094004 24.641006
576.000000 -12.203404 26.305106
576.000000 -13.312805 27.969207
576.000000 -14.422205 29.633308
576.000000 -16.000000 32.000000
574.536417 -17.359042 32.104542
573.072833 -18.718084 32.209083
571.609250 -20.077125 32.313625
570.145666 -21.436167 32.418167
568.682083 -22.795209 32.522708
567.218499 -24.154251 32.627250
565.754916 -25.513292 32.731792
564.291332 -26.872334 32.836333
562.827749 -28.231376 32.940875
561.364166 -29.590418 33.045417
559.900582 -30.949459 33.149958
558.436999 -32.308501 33.254500
556.973415 -33.667543 33.359042
555.509832 -35.026585 33.463583
554.046248 -36.385627 33.568125
552.582665 -37.744668 33.672667
551.119081 -39.103710 33.777208
549.655498 -40.462752 33.881750
548.191915 -41.821794 33.986292
546.728331 -43.180835 34.090833
545.264748 -44.539877 34.195375
543.801164 -45.898919 34.299917
542.337581 -47.257961 34.404459
540.873997 -48.617003 34.509000
539.410414 -49.976044 34.613542
537.946830 -51.335086 34.718084
536.483247 -52.694128 34.822625
535.019664 -54.053170 34.927167
533.556080 -55.412211 35.031709
532.092497 -56.771253 35.136250
530.628913 -58.130295 35.240792
529.165330 -59.489337 35.345334
527.701746 -60.848378 35.449875
526.238163 -62.207420 35.554417
524.774579 -63.566462 35.658959
523.310996 -64.925504 35.763500
521.847413 -66.284546 35.868042
520.383829 -67.643587 35.972584
518.920246 -69.002629 36.077125
517.456662 -70.361671 36.181667
515.993079 -71.720713 36.286209
514.529495 -73.079754 36.390750
513.065912 -74.438796 36.495292
511.602328 -75.797838 36.599834
510.138745 -77.156880 36.704375
508.675161 -78.515921 36.808917
507.211578 -79.874963 36.913459
505.747995 -81.234005 37.018000
504.284411 -82.593047 37.122542
502.820828 -83.952089 37.227084
501.357244 -85.311130 37.331625
499.893661 -86.670172 37.436167
498.430077 -88.029214 37.540709
496.966494 -89.388256 37.645250
495.502910 -90.747297 37.749792
494.039327 -92.106339 37.854334
492.575744 -93.465381 37.958875
491.112160 -94.824423 38.063417
489.648577 -96.183464 38.167959
488.184993 -97.542506 38.272500
486.721410 -98.901548 38.377042
485.257826 -100.260590 38.481584
483.794243 -101.619632 38.586126
482.330659 -102.978673 38.690667
480.867076 -104.337715 38.795209
479.403493 -105.696757 38.899751
477.939909 -107.055799 39.004292
476.476326 -108.414840 39.108834
475.012742 -109.773882 39.213376
473.549159 -111.132924 39.317917
472.085575 -112.491966 39.422459
470.621992 -113.851008 39.527001
469.158408 -115.210049 39.631542
467.694825 -116.569091 39.736084
466.231242 -117.928133 39.840626
464.767658 -119.287175 39.945167
463.304075 -120.646216 40.049709
461.840491 -122.005258 40.154251
460.376908 -123.364300 40.258792
458.913324 -124.723342 40.363334
457.449741 -126.082383 40.467876
455.986157 -127.441425 40.572417
454.522574 -128.800467 40.676959
453.058991 -130.159509 40.781501
451.595407 -131.518551 40.886042
450.131824 -132.877592 40.990584
448.668240 -134.236634 41.095126
447.204657 -135.595676 41.199667
445.741073 -136.954718 41.304209
444.277490 -138.313759 41.408751
442.813906 -139.672801 41.513292
441.350323 -141.031843 41.617834
439.886740 -142.390885 41.722376
438.423156 -143.749926 41.826917
436.959573 -145.108968 41.931459
435.495989 -146.468010 42.036001
434.032406 -147.827052 42.140542
432.568822 -149.186094 42.245084
431.105239 -150.545135 42.349626
429.641655 -151.904177 42.454167
428.178072 -153.263219 42.558709
426.714489 -154.622261 42.663251
425.250905 -155.981302 42.767792
423.787322 -157.340344 42.872334
422.323738 -158.699386 42.976876
420.860155 -160.058428 43.081418
419.396571 -161.417470 43.185959
417.932988 -162.776511 43.290501
416.469404 -164.135553 43.395043
415.005821 -165.494595 43.499584
413.542238 -166.853637 43.604126
412.078654 -168.212678 43.708668
410.615071 -169.571720 43.813209
409.151487 -170.930762 43.917751
407.687904 -172.289804 44.022293
406.224320 -173.648845 44.126834
404.760737 -175.007887 44.231376
403.297153 -176.366929 44.335918
401.833570 -177.725971 44.440459
400.369987 -179.085013 44.545001
398.906403 -180.444054 44.649543
397.442820 -181.803096 44.754084
395.979236 -183.162138 44.858626
394.515653 -184.521180 44.963168
393.052069 -185.880221 45.067709
391.588486 -187.239263 45.172251
390.124902 -188.598305 45.276793
388.661319 -189.957347 45.381334
387.197735 -191.316388 45.485876
385.734152 -192.675430 45.590418
384.270569 -194.034472 45.694959
382.806985 -195.393514 45.799501
381.343402 -196.752556 45.904043
379.879818 -198.111597 46.008584
378.416235 -199.470639 46.113126
376.952651 -200.829681 46.217668
375.489068 -202.188723 46.322209
374.025484 -203.547764 46.426751
372.561901 -204.906806 46.531293
371.098318 -206.265848 46.635834
369.634734 -207.624890 46.740376
368.171151 -208.983931 46.844918
366.707567 -210.342973 46.949459
365.243984 -211.702015 47.054001
363.780400 -213.061057 47.158543
362.316817 -214.420099 47.263085
360.853233 -215.779140 47.367626
359.389650 -217.138182 47.472168
357.926067 -218.497224 47.576710
356.462483 -219.856266 47.681251
354.998900 -221.215307 47.785793
353.535316 -222.574349 47.890335
352.000000 -224.000000 48.000000
350.223291 -224.803749 48.444177
348.446583 -225.607498 48.888354
346.669874 -226.411248 49.332532
344.893165 -227.214997 49.776709
343.116456 -228.018746 50.220886
341.339748 -228.822495 50.665063
339.563039 -229.626244 51.109240
337.786330 -230.429993 51.553417
336.009622 -231.233743 51.997595
334.232913 -232.037492 52.441772
332.456204 -232.841241 52.885949
330.679495 -233.644990 53.330126
328.902787 -234.448739 53.774303
327.126078 -235.252489 54.218481
325.349369 -236.056238 54.662658
323.572660 -236.859987 55.106835
321.795952 -237.663736 55.551012
320.019243 -238.467485 55.995189
318.242534 -239.271234 56.439366
316.465826 -240.074984 56.883544
314.689117 -240.878733 57.327721
312.912408 -241.682482 57.771898
311.135699 -242.486231 58.216075
309.358991 -243.289980 58.660252
307.582282 -244.093730 59.104430
305.805573 -244.897479 59.548607
304.028865 -245.701228 59.992784
302.252156 -246.504977 60.436961
300.475447 -247.308726 60.881138
298.698738 -248.112476 61.325315
296.922030 -248.916225 61.769493
295.145321 -249.719974 62.213670
293.368612 -250.523723 62.657847
291.591903 -251.327472 63.102024
289.815195 -252.131221 63.546201
288.038486 -252.934971 63.990378
286.261777 -253.738720 64.434556
284.485069 -254.542469 64.878733
282.708360 -255.346218 65.322910
280.931651 -256.149967 65.767087
279.154942 -256.953717 66.211264
277.378234 -257.757466 66.655442
275.601525 -258.561215 67.099619
273.824816 -259.364964 67.543796
272.048108 -260.168713 67.987973
270.271399 -260.972462 68.432150
268.494690 -261.776212 68.876327
266.717981 -262.579961 69.320505
264.941273 -263.383710 69.764682
263.164564 -264.187459 70.208859
261.387855 -264.991208 70.653036
259.611146 -265.794958 71.097213
257.834438 -266.598707 71.541391
256.057729 -267.402456 71.985568
254.281020 -268.206205 72.429745
252.504312 -269.009954 72.873922
250.727603 -269.813703 73.318099
248.950894 -270.617453 73.762276
247.174185 -271.421202 74.206454
245.397477 -272.224951 74.650631
243.620768 -273.028700 75.094808
241.844059 -273.832449 75.538985
240.067351 -274.636199 75.983162
238.290642 -275.439948 76.427340
236.513933 -276.243697 76.871517
234.737224 -277.047446 77.315694
232.960516 -277.851195 77.759871
231.183807 -278.654944 78.204048
229.407098 -279.458694 78.648225
227.630389 -280.262443 79.092403
225.853681 -281.066192 79.536580
224.076972 -281.869941 79.980757
222.300263 -282.673690 80.424934
220.523555 -283.477440 80.869111
218.746846 -284.281189 81.313289
216.970137 -285.084938 81.757466
215.193428 -285.888687 82.201643
213.416720 -286.692436 82.645820
211.640011 -287.496186 83.089997
209.863302 -288.299935 83.534174
208.086594 -289.103684 83.978352
206.309885 -289.907433 84.422529
204.533176 -290.711182 84.866706
202.756467 -291.514931 85.310883
200.979759 -292.318681 85.755060
199.203050 -293.122430 86.199238
197.426341 -293.926179 86.643415
195.649632 -294.729928 87.087592
193.872924 -295.533677 87.531769
192.096215 -296.337427 87.975946
190.319506 -297.141176 88.420123
188.542798 -297.944925 88.864301
186.766089 -298.748674 89.308478
184.989380 -299.552423 89.752655
183.212671 -300.356172 90.196832
181.435963 -301.159922 90.641009
179.659254 -301.963671 91.085187
177.882545 -302.767420 91.529364
176.105837 -303.571169 91.973541
174.329128 -304.374918 92.417718
172.552419 -305.178668 92.861895
170.775710 -305.982417 93.306072
168.999002 -306.786166 93.750250
167.222293 -307.589915 94.194427
165.445584 -308.393664 94.638604
163.668875 -309.197413 95.082781
161.892167 -310.001163 95.526958
160.115458 -310.804912 95.971135
158.338749 -311.608661 96.415313
156.562041 -312.412410 96.859490
154.785332 -313.216159 97.303667
153.008623 -314.019909 97.747844
151.231914 -314.823658 98.192021
149.455206 -315.627407 98.636199
147.678497 -316.431156 99.080376
145.901788 -317.234905 99.524553
144.125080 -318.038654 99.968730
142.348371 -318.842404 100.412907
140.571662 -319.646153 100.857084
138.794953 -320.449902 101.301262
137.018245 -321.253651 101.745439
135.241536 -322.057400 102.189616
133.464827 -322.861150 102.633793
131.688118 -323.664899 103.077970
129.911410 -324.468648 103.522148
128.134701 -325.272397 103.966325
126.357992 -326.076146 104.410502
124.581284 -326.879896 104.854679
122.804575 -327.683645 105.298856
121.027866 -328.487394 105.743033
119.251157 -329.291143 106.187211
117.474449 -330.094892 106.631388
115.697740 -330.898641 107.075565
113.921031 -331.702391 107.519742
112.144323 -332.506140 107.963919
110.367614 -333.309889 108.408097
108.590905 -334.113638 108.852274
106.814196 -334.917387 109.296451
105.037488 -335.721137 109.740628
103.260779 -336.524886 110.184805
101.484070 -337.328635 110.628982
99.707362 -338.132384 111.073160
97.930653 -338.936133 111.517337
96.153944 -339.739882 111.961514
94.377235 -340.543632 112.405691
92.600527 -341.347381 112.849868
90.823818 -342.151130 113.294046
89.047109 -342.954879 113.738223
87.270400 -343.758628 114.182400
85.493692 -344.562378 114.626577
83.716983 -345.366127 115.070754
81.940274 -346.169876 115.514931
80.163566 -346.973625 115.959109
78.386857 -347.777374 116.403286
76.610148 -348.581123 116.847463
74.833439 -349.384873 117.291640
73.056731 -350.188622 117.735817
71.280022 -350.992371 118.179995
69.503313 -351.796120 118.624172
67.726605 -352.599869 119.068349
65.949896 -353.403619 119.512526
64.173187 -354.207368 119.956703
62.396478 -355.011117 120.400880
60.619770 -355.814866 120.845058
58.843061 -356.618615 121.289235
57.066352 -357.422364 121.733412
55.289643 -358.226114 122.177589
53.512935 -359.029863 122.621766
51.736226 -359.833612 123.065943
49.959517 -360.637361 123.510121
48.182809 -361.441110 123.954298
46.406100 -362.244860 124.398475
44.629391 -363.048609 124.842652
42.852682 -363.852358 125.286829
41.075974 -364.656107 125.731007
39.299265 -365.459856 126.175184
37.522556 -366.263606 126.619361
35.745848 -367.067355 127.063538
33.969139 -367.871104 127.507715
32.192430 -368.674853 127.951892
30.415721 -369.478602 128.396070
28.639013 -370.282351 128.840247
26.862304 -371.086101 129.284424
25.085595 -371.889850 129.728601
23.308886 -372.693599 130.172778
21.532178 -373.497348 130.616956
19.755469 -374.301097 131.061133
17.978760 -375.104847 131.505310
16.000000 -376.000000 132.000000
16.000000 -376.000000 130.000000
16.000000 -376.000000 128.000000
16.000000 -376.000000 126.000000
16.000000 -376.000000 124.000000
16.000000 -376.000000 122.000000
16.000000 -376.000000 120.000000
16.000000 -376.000000 118.000000
16.000000 -376.000000 116.000000
16.000000 -376.000000 114.000000
16.000000 -376.000000 112.000000
16.000000 -376.000000 110.000000
16.000000 -376.000000 108.000000
16.000000 -376.000000 106.000000
16.000000 -376.000000 104.000000
16.000000 -376.000000 102.000000
16.000000 -376.000000 100.000000
16.000000 -376.000000 98.000000
16.000000 -376.000000 96.000000
16.000000 -376.000000 94.000000
16.000000 -376.000000 92.000000
16.000000 -376.000000 90.000000
16.000000 -376.000000 88.000000
16.000000 -376.000000 86.000000
16.000000 -376.000000 84.000000
16.000000 -376.000000 82.000000
16.000000 -376.000000 80.000000
16.000000 -376.000000 78.000000
16.000000 -376.000000 76.000000
16.000000 -376.000000 74.000000
16.000000 -376.000000 72.000000
16.000000 -376.000000 70.000000
16.000000 -376.000000 68.000000
16.000000 -376.000000 66.000000
16.000000 -376.000000 64.000000
16.000000 -376.000000 62.000000
16.000000 -376.000000 60.000000
16.000000 -376.000000 58.000000
16.000000 -376.000000 56.000000
16.000000 -376.000000 54.000000
16.000000 -376.000000 52.000000
16.000000 -376.000000 50.000000
16.000000 -376.000000 48.000000
16.000000 -376.000000 46.000000
16.000000 -376.000000 44.000000
16.000000 -376.000000 42.000000
16.000000 -376.000000 40.000000
16.000000 -376.000000 38.000000
16.000000 -376.000000 36.000000
16.000000 -376.000000 34.000000
16.000000 -376.000000 32.000000
16.000000 -376.000000 30.000000
16.000000 -376.000000 28.000000
16.000000 -376.000000 26.000000
16.000000 -376.000000 24.000000
16.000000 -376.000000 22.000000
16.000000 -376.000000 20.000000
16.000000 -376.000000 18.000000
16.000000 -376.000000 16.000000
16.000000 -376.000000 14.000000
16.000000 -376.000000 12.000000
16.000000 -376.000000 10.000000
16.000000 -376.000000 8.000000
16.000000 -376.000000 6.000000
16.000000 -376.000000 4.000000
16.000000 -376.000000 2.000000
16.000000 -376.000000 0.000000
16.000000 -376.000000 -2.000000
16.000000 -376.000000 -4.000000
16.000000 -376.000000 -6.000000
16.000000 -376.000000 -8.000000
16.000000 -376.000000 -10.000000
16.000000 -376.000000 -12.000000
16.000000 -376.000000 -14.000000
16.000000 -376.000000 -16.000000
16.000000 -376.000000 -18.000000
16.000000 -376.000000 -20.000000
16.000000 -376.000000 -22.000000
16.000000 -376.000000 -24.000000
16.000000 -376.000000 -26.000000
16.000000 -376.000000 -28.000000
16.000000 -376.000000 -30.000000
16.000000 -376.000000 -32.000000
16.000000 -376.000000 -34.000000
16.000000 -376.000000 -36.000000
16.000000 -376.000000 -38.000000
16.000000 -376.000000 -40.000000
16.000000 -376.000000 -42.000000
16.000000 -376.000000 -44.000000
16.000000 -376.000000 -46.000000
16.000000 -376.000000 -48.000000
16.000000 -376.000000 -50.000000
16.000000 -376.000000 -52.000000
16.000000 -376.000000 -54.000000
16.000000 -376.000000 -56.000000
16.000000 -376.000000 -58.000000
16.000000 -376.000000 -60.000000
16.000000 -376.000000 -62.000000
16.000000 -376.000000 -64.000000
16.000000 -376.000000 -66.000000
16.000000 -376.000000 -68.000000
16.000000 -376.000000 -70.000000
16.000000 -376.000000 -72.000000
16.000000 -376.000000 -74.000000
16.000000 -376.000000 -76.000000
16.000000 -376.000000 -78.000000
16.000000 -376.000000 -80.000000
16.000000 -376.000000 -82.000000
16.000000 -376.000000 -84.000000
16.000000 -376.000000 -86.000000
16.000000 -376.000000 -88.000000
16.000000 -376.000000 -90.000000
16.000000 -376.000000 -92.000000
16.000000 -376.000000 -94.000000
16.000000 -376.000000 -96.000000
16.000000 -376.000000 -98.000000
16.000000 -376.000000 -100.000000
16.000000 -376.000000 -102.000000
16.000000 -376.000000 -104.000000
16.000000 -376.000000 -106.000000
16.000000 -376.000000 -108.000000
16.000000 -376.000000 -110.000000
16.000000 -376.000000 -112.000000
