-3927.950837 272.000000 228.526963
-3929.950664 272.000000 228.500649
-3931.950491 272.000000 228.474336
-3933.950318 272.000000 228.448022
-3935.950145 272.000000 228.421709
-3937.949972 272.000000 228.395395
-3939.949799 272.000000 228.369082
-3941.949626 272.000000 228.342768
-3943.949453 272.000000 228.316455
-3945.949279 272.000000 228.290141
-3947.949106 272.000000 228.263828
-3949.948933 272.000000 228.237514
-3951.948760 272.000000 228.211201
-3953.948587 272.000000 228.184887
-3955.948414 272.000000 228.158574
-3957.948241 272.000000 228.132260
-3959.948068 272.000000 228.105946
-3961.947895 272.000000 228.079633
-3963.947721 272.000000 228.053319
-3965.947548 272.000000 228.027006
-3968.000000 272.000000 228.000000
-3968.058798 270.000864 228.000000
-3968.117596 268.001729 228.000000
-3968.176394 266.002593 228.000000
-3968.235192 264.003458 228.000000
-3968.293991 262.004322 228.000000
-3968.352789 260.005187 228.000000
-3968.411587 258.006051 228.000000
-3968.470385 256.006916 228.000000
-3968.529183 254.007780 228.000000
-3968.587981 252.008645 228.000000
-3968.646779 250.009509 228.000000
-3968.705577 248.010374 228.000000
-3968.764375 246.011238 228.000000
-3968.823173 244.012103 228.000000
-3968.881972 242.012967 228.000000
-3968.940770 240.013832 228.000000
-3968.999568 238.014696 228.000000
-3969.058366 236.015561 228.000000
-3969.117164 234.016425 228.000000
-3969.175962 232.017290 228.000000
-3969.234760 230.018154 228.000000
-3969.293558 228.019019 228.000000
-3969.352356 226.019883 228.000000
-3969.411154 224.020748 228.000000
-3969.469953 222.021612 228.000000
-3969.528751 220.022477 228.000000
-3969.587549 218.023341 228.000000
-3969.646347 216.024206 228.000000
-3969.705145 214.025070 228.000000
-3969.763943 212.025935 228.000000
-3969.822741 210.026799 228.000000
-3969.881539 208.027664 228.000000
-3969.940337 206.028528 228.000000
-3969.999136 204.029393 228.000000
-3970.057934 202.030257 228.000000
-3970.116732 200.031122 228.000000
-3970.175530 198.031986 228.000000
-3970.234328 196.032851 228.000000
-3970.293126 194.033715 228.000000
-3970.351924 192.034580 228.000000
-3970.410722 190.035444 228.000000
-3970.469520 188.036309 228.000000
-3970.528318 186.037173 228.000000
-3970.587117 184.038038 228.000000
-3970.645915 182.038902 228.000000
-3970.704713 180.039767 228.000000
-3970.763511 178.040631 228.000000
-3970.822309 176.041496 228.000000
-3970.881107 174.042360 228.000000
-3970.939905 172.043225 228.000000
-3970.998703 170.044089 228.000000
-3971.057501 168.044954 228.000000
-3971.116299 166.045818 228.000000
-3971.175098 164.046683 228.000000
-3971.233896 162.047547 228.000000
-3971.292694 160.048411 228.000000
-3971.351492 158.049276 228.000000
-3971.410290 156.050140 228.000000
-3971.469088 154.051005 228.000000
-3971.527886 152.051869 228.000000
-3971.586684 150.052734 228.000000
-3971.645482 148.053598 228.000000
-3971.704281 146.054463 228.000000
-3971.763079 144.055327 228.000000
-3971.821877 142.056192 228.000000
-3971.880675 140.057056 228.000000
-3971.939473 138.057921 228.000000
-3971.998271 136.058785 228.000000
-3972.057069 134.059650 228.000000
-3972.115867 132.060514 228.000000
-3972.174665 130.061379 228.000000
-3972.233463 128.062243 228.000000
-3972.292262 126.063108 228.000000
-3972.351060 124.063972 228.000000
-3972.409858 122.064837 228.000000
-3972.468656 120.065701 228.000000
-3972.527454 118.066566 228.000000
-3972.586252 116.067430 228.000000
-3972.645050 114.068295 228.000000
-3972.703848 112.069159 228.000000
-3972.762646 110.070024 228.000000
-3972.821444 108.070888 228.000000
-3972.880243 106.071753 228.000000
-3972.939041 104.072617 228.000000
-3972.997839 102.073482 228.000000
-3973.056637 100.074346 228.000000
-3973.115435 98.075211 228.000000
-3973.174233 96.076075 228.000000
-3973.233031 94.076940 228.000000
-3973.291829 92.077804 228.000000
-3973.350627 90.078669 228.000000
-3973.409425 88.079533 228.000000
-3973.468224 86.080398 228.000000
-3973.527022 84.081262 228.000000
-3973.585820 82.082127 228.000000
-3973.644618 80.082991 228.000000
-3973.703416 78.083856 228.000000
-3973.762214 76.084720 228.000000
-3973.821012 74.085585 228.000000
-3973.879810 72.086449 228.000000
-3973.938608 70.087314 228.000000
-3973.997407 68.088178 228.000000
-3974.056205 66.089043 228.000000
-3974.115003 64.089907 228.000000
-3974.173801 62.090772 228.000000
-3974.232599 60.091636 228.000000
-3974.291397 58.092501 228.000000
-3974.350195 56.093365 228.000000
-3974.408993 54.094230 228.000000
-3974.467791 52.095094 228.000000
-3974.526589 50.095959 228.000000
-3974.585388 48.096823 228.000000
-3974.644186 46.097687 228.000000
-3974.702984 44.098552 228.000000
-3974.761782 42.099416 228.000000
-3974.820580 40.100281 228.000000
-3974.879378 38.101145 228.000000
-3974.938176 36.102010 228.000000
-3974.996974 34.102874 228.000000
-3975.055772 32.103739 228.000000
-3975.114570 30.104603 228.000000
-3975.173369 28.105468 228.000000
-3975.232167 26.106332 228.000000
-3975.290965 24.107197 228.000000
-3975.349763 22.108061 228.000000
-3975.408561 20.108926 228.000000
-3975.467359 18.109790 228.000000
-3975.526157 16.110655 228.000000
-3975.584955 14.111519 228.000000
-3975.643753 12.112384 228.000000
-3975.702552 10.113248 228.000000
-3975.761350 8.114113 228.000000
-3975.820148 6.114977 228.000000
-3975.878946 4.115842 228.000000
-3975.937744 2.116706 228.000000
-3976.000000 0.000000 228.000000
-3976.063348 -1.998996 228.000000
-3976.126697 -3.997993 228.000000
-3976.190045 -5.996989 228.000000
-3976.253394 -7.995986 228.000000
-3976.316742 -9.994982 228.000000
-3976.380091 -11.993979 228.000000
-3976.443439 -13.992975 228.000000
-3976.506788 -15.991972 228.000000
-3976.570136 -17.990968 228.000000
-3976.633485 -19.989965 228.000000
-3976.696833 -21.988961 228.000000
-3976.760182 -23.987958 228.000000
-3976.823530 -25.986954 228.000000
-3976.886879 -27.985951 228.000000
-3976.950227 -29.984947 228.000000
-3977.013576 -31.983944 228.000000
-3977.076924 -33.982940 228.000000
-3977.140273 -35.981937 228.000000
-3977.203621 -37.980933 228.000000
-3977.266970 -39.979930 228.000000
-3977.330318 -41.978926 228.000000
-3977.393667 -43.977923 228.000000
-3977.457015 -45.976919 228.000000
-3977.520364 -47.975916 228.000000
-3977.583712 -49.974912 228.000000
-3977.647060 -51.973909 228.000000
-3977.710409 -53.972905 228.000000
-3977.773757 -55.971902 228.000000
-3977.837106 -57.970898 228.000000
-3977.900454 -59.969895 228.000000
-3977.963803 -61.968891 228.000000
-3978.027151 -63.967888 228.000000
-3978.090500 -65.966884 228.000000
-3978.153848 -67.965881 228.000000
-3978.217197 -69.964877 228.000000
-3978.280545 -71.963874 228.000000
-3978.343894 -73.962870 228.000000
-3978.407242 -75.961867 228.000000
-3978.470591 -77.960863 228.000000
-3978.533939 -79.959860 228.000000
-3978.597288 -81.958856 228.000000
-3978.660636 -83.957853 228.000000
-3978.723985 -85.956849 228.000000
-3978.787333 -87.955846 228.000000
-3978.850682 -89.954842 228.000000
-3978.914030 -91.953839 228.000000
-3978.977379 -93.952835 228.000000
-3979.040727 -95.951832 228.000000
-3979.104076 -97.950828 228.000000
-3979.167424 -99.949825 228.000000
-3979.230772 -101.948821 228.000000
-3979.294121 -103.947818 228.000000
-3979.357469 -105.946814 228.000000
-3979.420818 -107.945811 228.000000
-3979.484166 -109.944807 228.000000
-3979.547515 -111.943803 228.000000
-3979.610863 -113.942800 228.000000
-3979.674212 -115.941796 228.000000
-3979.737560 -117.940793 228.000000
-3979.800909 -119.939789 228.000000
-3979.864257 -121.938786 228.000000
-3979.927606 -123.937782 228.000000
-3979.990954 -125.936779 228.000000
-3980.054303 -127.935775 228.000000
-3980.117651 -129.934772 228.000000
-3980.181000 -131.933768 228.000000
-3980.244348 -133.932765 228.000000
-3980.307697 -135.931761 228.000000
-3980.371045 -137.930758 228.000000
-3980.434394 -139.929754 228.000000
-3980.497742 -141.928751 228.000000
-3980.561091 -143.927747 228.000000
-3980.624439 -145.926744 228.000000
-3980.687788 -147.925740 228.000000
-3980.751136 -149.924737 228.000000
-3980.814485 -151.923733 228.000000
-3980.877833 -153.922730 228.000000
-3980.941181 -155.921726 228.000000
-3981.004530 -157.920723 228.000000
-3981.067878 -159.919719 228.000000
-3981.131227 -161.918716 228.000000
-3981.194575 -163.917712 228.000000
-3981.257924 -165.916709 228.000000
-3981.321272 -167.915705 228.000000
-3981.384621 -169.914702 228.000000
-3981.447969 -171.913698 228.000000
-3981.511318 -173.912695 228.000000
-3981.574666 -175.911691 228.000000
-3981.638015 -177.910688 228.000000
-3981.701363 -179.909684 228.000000
-3981.764712 -181.908681 228.000000
-3981.828060 -183.907677 228.000000
-3981.891409 -185.906674 228.000000
-3981.954757 -187.905670 228.000000
-3982.018106 -189.904667 228.000000
-3982.081454 -191.903663 228.000000
-3982.144803 -193.902660 228.000000
-3982.208151 -195.901656 228.000000
-3982.271500 -197.900653 228.000000
-3982.334848 -199.899649 228.000000
-3982.398197 -201.898646 228.000000
-3982.461545 -203.897642 228.000000
-3982.524893 -205.896639 228.000000
-3982.588242 -207.895635 228.000000
-3982.651590 -209.894632 228.000000
-3982.714939 -211.893628 228.000000
-3982.778287 -213.892625 228.000000
-3982.841636 -215.891621 228.000000
-3982.904984 -217.890617 228.000000
-3982.968333 -219.889614 228.000000
-3983.031681 -221.888610 228.000000
-3983.095030 -223.887607 228.000000
-3983.158378 -225.886603 228.000000
-3983.221727 -227.885600 228.000000
-3983.285075 -229.884596 228.000000
-3983.348424 -231.883593 228.000000
-3983.411772 -233.882589 228.000000
-3983.475121 -235.881586 228.000000
-3983.538469 -237.880582 228.000000
-3983.601818 -239.879579 228.000000
-3983.665166 -241.878575 228.000000
-3983.728515 -243.877572 228.000000
-3983.791863 -245.876568 228.000000
-3983.855212 -247.875565 228.000000
-3983.918560 -249.874561 228.000000
-3983.981909 -251.873558 228.000000
-3984.045257 -253.872554 228.000000
-3984.108605 -255.871551 228.000000
-3984.171954 -257.870547 228.000000
-3984.235302 -259.869544 228.000000
-3984.298651 -261.868540 228.000000
-3984.361999 -263.867537 228.000000
-3984.425348 -265.866533 228.000000
-3984.488696 -267.865530 228.000000
-3984.552045 -269.864526 228.000000
-3984.615393 -271.863523 228.000000
-3984.678742 -273.862519 228.000000
-3984.742090 -275.861516 228.000000
-3984.805439 -277.860512 228.000000
-3984.868787 -279.859509 228.000000
-3984.932136 -281.858505 228.000000
-3984.995484 -283.857502 228.000000
-3985.058833 -285.856498 228.000000
-3985.122181 -287.855495 228.000000
-3985.185530 -289.854491 228.000000
-3985.248878 -291.853488 228.000000
-3985.312227 -293.852484 228.000000
-3985.375575 -295.851481 228.000000
-3985.438924 -297.850477 228.000000
-3985.502272 -299.849474 228.000000
-3985.565621 -301.848470 228.000000
-3985.628969 -303.847467 228.000000
-3985.692317 -305.846463 228.000000
-3985.755666 -307.845460 228.000000
-3985.819014 -309.844456 228.000000
-3985.882363 -311.843453 228.000000
-3985.945711 -313.842449 228.000000
-3986.009060 -315.841446 228.000000
-3986.072408 -317.840442 228.000000
-3986.135757 -319.839439 228.000000
-3986.199105 -321.838435 228.000000
-3986.262454 -323.837432 228.000000
-3986.325802 -325.836428 228.000000
-3986.389151 -327.835424 228.000000
-3986.452499 -329.834421 228.000000
-3986.515848 -331.833417 228.000000
-3986.579196 -333.832414 228.000000
-3986.642545 -335.831410 228.000000
-3986.705893 -337.830407 228.000000
-3986.769242 -339.829403 228.000000
-3986.832590 -341.828400 228.000000
-3986.895939 -343.827396 228.000000
-3986.959287 -345.826393 228.000000
-3987.022636 -347.825389 228.000000
-3987.085984 -349.824386 228.000000
-3987.149333 -351.823382 228.000000
-3987.212681 -353.822379 228.000000
-3987.276030 -355.821375 228.000000
-3987.339378 -357.820372 228.000000
-3987.402726 -359.819368 228.000000
-3987.466075 -361.818365 228.000000
-3987.529423 -363.817361 228.000000
-3987.592772 -365.816358 228.000000
-3987.656120 -367.815354 228.000000
-3987.719469 -369.814351 228.000000
-3987.782817 -371.813347 228.000000
-3987.846166 -373.812344 228.000000
-3987.909514 -375.811340 228.000000
-3987.972863 -377.810337 228.000000
-3988.036211 -379.809333 228.000000
-3988.099560 -381.808330 228.000000
-3988.162908 -383.807326 228.000000
-3988.226257 -385.806323 228.000000
-3988.289605 -387.805319 228.000000
-3988.352954 -389.804316 228.000000
-3988.416302 -391.803312 228.000000
-3988.479651 -393.802309 228.000000
-3988.542999 -395.801305 228.000000
-3988.606348 -397.800302 228.000000
-3988.669696 -399.799298 228.000000
-3988.733045 -401.798295 228.000000
-3988.796393 -403.797291 228.000000
-3988.859742 -405.796288 228.000000
-3988.923090 -407.795284 228.000000
-3988.986438 -409.794281 228.000000
-3989.049787 -411.793277 228.000000
-3989.113135 -413.792274 228.000000
-3989.176484 -415.791270 228.000000
-3989.239832 -417.790267 228.000000
-3989.303181 -419.789263 228.000000
-3989.366529 -421.788260 228.000000
-3989.429878 -423.787256 228.000000
-3989.493226 -425.786253 228.000000
-3989.556575 -427.785249 228.000000
-3989.619923 -429.784246 228.000000
-3989.683272 -431.783242 228.000000
-3989.746620 -433.782238 228.000000
-3989.809969 -435.781235 228.000000
-3989.873317 -437.780231 228.000000
-3989.936666 -439.779228 228.000000
-3990.000014 -441.778224 228.000000
-3990.063363 -443.777221 228.000000
-3990.126711 -445.776217 228.000000
-3990.190060 -447.775214 228.000000
-3990.253408 -449.774210 228.000000
-3990.316757 -451.773207 228.000000
-3990.380105 -453.772203 228.000000
-3990.443454 -455.771200 228.000000
-3990.506802 -457.770196 228.000000
-3990.570150 -459.769193 228.000000
-3990.633499 -461.768189 228.000000
-3990.696847 -463.767186 228.000000
-3990.760196 -465.766182 228.000000
-3990.823544 -467.765179 228.000000
-3990.886893 -469.764175 228.000000
-3990.950241 -471.763172 228.000000
-3991.013590 -473.762168 228.000000
-3991.076938 -475.761165 228.000000
-3991.140287 -477.760161 228.000000
-3991.203635 -479.759158 228.000000
-3991.266984 -481.758154 228.000000
-3991.330332 -483.757151 228.000000
-3991.393681 -485.756147 228.000000
-3991.457029 -487.755144 228.000000
-3991.520378 -489.754140 228.000000
-3991.583726 -491.753137 228.000000
-3991.647075 -493.752133 228.000000
-3991.710423 -495.751130 228.000000
-3991.773772 -497.750126 228.000000
-3991.837120 -499.749123 228.000000
-3991.900469 -501.748119 228.000000
-3991.963817 -503.747116 228.000000
-3992.027166 -505.746112 228.000000
-3992.090514 -507.745109 228.000000
-3992.153862 -509.744105 228.000000
-3992.217211 -511.743102 228.000000
-3992.280559 -513.742098 228.000000
-3992.343908 -515.741095 228.000000
-3992.407256 -517.740091 228.000000
-3992.470605 -519.739088 228.000000
-3992.533953 -521.738084 228.000000
-3992.597302 -523.737081 228.000000
-3992.660650 -525.736077 228.000000
-3992.723999 -527.735074 228.000000
-3992.787347 -529.734070 228.000000
-3992.850696 -531.733067 228.000000
-3992.914044 -533.732063 228.000000
-3992.977393 -535.731060 228.000000
-3993.040741 -537.730056 228.000000
-3993.104090 -539.729053 228.000000
-3993.167438 -541.728049 228.000000
-3993.230787 -543.727045 228.000000
-3993.294135 -545.726042 228.000000
-3993.357484 -547.725038 228.000000
-3993.420832 -549.724035 228.000000
-3993.484181 -551.723031 228.000000
-3993.547529 -553.722028 228.000000
-3993.610878 -555.721024 228.000000
-3993.674226 -557.720021 228.000000
-3993.737574 -559.719017 228.000000
-3993.800923 -561.718014 228.000000
-3993.864271 -563.717010 228.000000
-3993.927620 -565.716007 228.000000
-3993.990968 -567.715003 228.000000
-3994.054317 -569.714000 228.000000
-3994.117665 -571.712996 228.000000
-3994.181014 -573.711993 228.000000
-3994.244362 -575.710989 228.000000
-3994.307711 -577.709986 228.000000
-3994.371059 -579.708982 228.000000
-3994.434408 -581.707979 228.000000
-3994.497756 -583.706975 228.000000
-3994.561105 -585.705972 228.000000
-3994.624453 -587.704968 228.000000
-3994.687802 -589.703965 228.000000
-3994.751150 -591.702961 228.000000
-3994.814499 -593.701958 228.000000
-3994.877847 -595.700954 228.000000
-3994.941196 -597.699951 228.000000
-3995.004544 -599.698947 228.000000
-3995.067893 -601.697944 228.000000
-3995.131241 -603.696940 228.000000
-3995.194590 -605.695937 228.000000
-3995.257938 -607.694933 228.000000
-3995.321287 -609.693930 228.000000
-3995.384635 -611.692926 228.000000
-3995.447983 -613.691923 228.000000
-3995.511332 -615.690919 228.000000
-3995.574680 -617.689916 228.000000
-3995.638029 -619.688912 228.000000
-3995.701377 -621.687909 228.000000
-3995.764726 -623.686905 228.000000
-3995.828074 -625.685902 228.000000
-3995.891423 -627.684898 228.000000
-3995.954771 -629.683895 228.000000
-3996.018120 -631.682891 228.000000
-3996.081468 -633.681888 228.000000
-3996.144817 -635.680884 228.000000
-3996.208165 -637.679881 228.000000
-3996.271514 -639.678877 228.000000
-3996.334862 -641.677874 228.000000
-3996.398211 -643.676870 228.000000
-3996.461559 -645.675867 228.000000
-3996.524908 -647.674863 228.000000
-3996.588256 -649.673859 228.000000
-3996.651605 -651.672856 228.000000
-3996.714953 -653.671852 228.000000
-3996.778302 -655.670849 228.000000
-3996.841650 -657.669845 228.000000
-3996.904999 -659.668842 228.000000
-3996.968347 -661.667838 228.000000
-3997.031695 -663.666835 228.000000
-3997.095044 -665.665831 228.000000
-3997.158392 -667.664828 228.000000
-3997.221741 -669.663824 228.000000
-3997.285089 -671.662821 228.000000
-3997.348438 -673.661817 228.000000
-3997.411786 -675.660814 228.000000
-3997.475135 -677.659810 228.000000
-3997.538483 -679.658807 228.000000
-3997.601832 -681.657803 228.000000
-3997.665180 -683.656800 228.000000
-3997.728529 -685.655796 228.000000
-3997.791877 -687.654793 228.000000
-3997.855226 -689.653789 228.000000
-3997.918574 -691.652786 228.000000
-3997.981923 -693.651782 228.000000
-3998.045271 -695.650779 228.000000
-3998.108620 -697.649775 228.000000
-3998.171968 -699.648772 228.000000
-3998.235317 -701.647768 228.000000
-3998.298665 -703.646765 228.000000
-3998.362014 -705.645761 228.000000
-3998.425362 -707.644758 228.000000
-3998.488711 -709.643754 228.000000
-3998.552059 -711.642751 228.000000
-3998.615407 -713.641747 228.000000
-3998.678756 -715.640744 228.000000
-3998.742104 -717.639740 228.000000
-3998.805453 -719.638737 228.000000
-3998.868801 -721.637733 228.000000
-3998.932150 -723.636730 228.000000
-3998.995498 -725.635726 228.000000
-3999.058847 -727.634723 228.000000
-3999.122195 -729.633719 228.000000
-3999.185544 -731.632716 228.000000
-3999.248892 -733.631712 228.000000
-3999.312241 -735.630709 228.000000
-3999.375589 -737.629705 228.000000
-3999.438938 -739.628702 228.000000
-3999.502286 -741.627698 228.000000
-3999.565635 -743.626695 228.000000
-3999.628983 -745.625691 228.000000
-3999.692332 -747.624688 228.000000
-3999.755680 -749.623684 228.000000
-3999.819029 -751.622681 228.000000
-3999.882377 -753.621677 228.000000
-3999.945726 -755.620674 228.000000
-4000.009074 -757.619670 228.000000
-4000.072423 -759.618666 228.000000
-4000.135771 -761.617663 228.000000
-4000.199119 -763.616659 228.000000
-4000.262468 -765.615656 228.000000
-4000.325816 -767.614652 228.000000
-4000.389165 -769.613649 228.000000
-4000.452513 -771.612645 228.000000
-4000.515862 -773.611642 228.000000
-4000.579210 -775.610638 228.000000
-4000.642559 -777.609635 228.000000
-4000.705907 -779.608631 228.000000
-4000.769256 -781.607628 228.000000
-4000.832604 -783.606624 228.000000
-4000.895953 -785.605621 228.000000
-4000.959301 -787.604617 228.000000
-4001.022650 -789.603614 228.000000
-4001.085998 -791.602610 228.000000
-4001.149347 -793.601607 228.000000
-4001.212695 -795.600603 228.000000
-4001.276044 -797.599600 228.000000
-4001.339392 -799.598596 228.000000
-4001.402741 -801.597593 228.000000
-4001.466089 -803.596589 228.000000
-4001.529438 -805.595586 228.000000
-4001.592786 -807.594582 228.000000
-4001.656135 -809.593579 228.000000
-4001.719483 -811.592575 228.000000
-4001.782831 -813.591572 228.000000
-4001.846180 -815.590568 228.000000
-4001.909528 -817.589565 228.000000
-4001.972877 -819.588561 228.000000
-4002.036225 -821.587558 228.000000
-4002.099574 -823.586554 228.000000
-4002.162922 -825.585551 228.000000
-4002.226271 -827.584547 228.000000
-4002.289619 -829.583544 228.000000
-4002.352968 -831.582540 228.000000
-4002.416316 -833.581537 228.000000
-4002.479665 -835.580533 228.000000
-4002.543013 -837.579530 228.000000
-4002.606362 -839.578526 228.000000
-4002.669710 -841.577523 228.000000
-4002.733059 -843.576519 228.000000
-4002.796407 -845.575516 228.000000
-4002.859756 -847.574512 228.000000
-4002.923104 -849.573509 228.000000
-4002.986453 -851.572505 228.000000
-4003.049801 -853.571502 228.000000
-4003.113150 -855.570498 228.000000
-4003.176498 -857.569495 228.000000
-4003.239847 -859.568491 228.000000
-4003.303195 -861.567488 228.000000
-4003.366544 -863.566484 228.000000
-4003.429892 -865.565480 228.000000
-4003.493240 -867.564477 228.000000
-4003.556589 -869.563473 228.000000
-4003.619937 -871.562470 228.000000
-4003.683286 -873.561466 228.000000
-4003.746634 -875.560463 228.000000
-4003.809983 -877.559459 228.000000
-4003.873331 -879.558456 228.000000
-4003.936680 -881.557452 228.000000
-4004.000028 -883.556449 228.000000
-4004.063377 -885.555445 228.000000
-4004.126725 -887.554442 228.000000
-4004.190074 -889.553438 228.000000
-4004.253422 -891.552435 228.000000
-4004.316771 -893.551431 228.000000
-4004.380119 -895.550428 228.000000
-4004.443468 -897.549424 228.000000
-4004.506816 -899.548421 228.000000
-4004.570165 -901.547417 228.000000
-4004.633513 -903.546414 228.000000
-4004.696862 -905.545410 228.000000
-4004.760210 -907.544407 228.000000
-4004.823559 -909.543403 228.000000
-4004.886907 -911.542400 228.000000
-4004.950256 -913.541396 228.000000
-4005.013604 -915.540393 228.000000
-4005.076952 -917.539389 228.000000
-4005.140301 -919.538386 228.000000
-4005.203649 -921.537382 228.000000
-4005.266998 -923.536379 228.000000
-4005.330346 -925.535375 228.000000
-4005.393695 -927.534372 228.000000
-4005.457043 -929.533368 228.000000
-4005.520392 -931.532365 228.000000
-4005.583740 -933.531361 228.000000
-4005.647089 -935.530358 228.000000
-4005.710437 -937.529354 228.000000
-4005.773786 -939.528351 228.000000
-4005.837134 -941.527347 228.000000
-4005.900483 -943.526344 228.000000
-4005.963831 -945.525340 228.000000
-4006.027180 -947.524337 228.000000
-4006.090528 -949.523333 228.000000
-4006.153877 -951.522330 228.000000
-4006.217225 -953.521326 228.000000
-4006.280574 -955.520323 228.000000
-4006.343922 -957.519319 228.000000
-4006.407271 -959.518316 228.000000
-4006.470619 -961.517312 228.000000
-4006.533968 -963.516309 228.000000
-4006.597316 -965.515305 228.000000
-4006.660664 -967.514302 228.000000
-4006.724013 -969.513298 228.000000
-4006.787361 -971.512295 228.000000
-4006.850710 -973.511291 228.000000
-4006.914058 -975.510287 228.000000
-4006.977407 -977.509284 228.000000
-4007.040755 -979.508280 228.000000
-4007.104104 -981.507277 228.000000
-4007.167452 -983.506273 228.000000
-4007.230801 -985.505270 228.000000
-4007.294149 -987.504266 228.000000
-4007.357498 -989.503263 228.000000
-4007.420846 -991.502259 228.000000
-4007.484195 -993.501256 228.000000
-4007.547543 -995.500252 228.000000
-4007.610892 -997.499249 228.000000
-4007.674240 -999.498245 228.000000
-4007.737589 -1001.497242 228.000000
-4007.800937 -1003.496238 228.000000
-4007.864286 -1005.495235 228.000000
-4007.927634 -1007.494231 228.000000
-4007.990983 -1009.493228 228.000000
-4008.054331 -1011.492224 228.000000
-4008.117680 -1013.491221 228.000000
-4008.181028 -1015.490217 228.000000
-4008.244376 -1017.489214 228.000000
-4008.307725 -1019.488210 228.000000
-4008.371073 -1021.487207 228.000000
-4008.434422 -1023.486203 228.000000
-4008.497770 -1025.485200 228.000000
-4008.561119 -1027.484196 228.000000
-4008.624467 -1029.483193 228.000000
-4008.687816 -1031.482189 228.000000
-4008.751164 -1033.481186 228.000000
-4008.814513 -1035.480182 228.000000
-4008.877861 -1037.479179 228.000000
-4008.941210 -1039.478175 228.000000
-4009.004558 -1041.477172 228.000000
-4009.067907 -1043.476168 228.000000
-4009.131255 -1045.475165 228.000000
-4009.194604 -1047.474161 228.000000
-4009.257952 -1049.473158 228.000000
-4009.321301 -1051.472154 228.000000
-4009.384649 -1053.471151 228.000000
-4009.447998 -1055.470147 228.000000
-4009.511346 -1057.469144 228.000000
-4009.574695 -1059.468140 228.000000
-4009.638043 -1061.467137 228.000000
-4009.701392 -1063.466133 228.000000
-4009.764740 -1065.465130 228.000000
-4009.828089 -1067.464126 228.000000
-4009.891437 -1069.463123 228.000000
-4009.954785 -1071.462119 228.000000
-4010.018134 -1073.461116 228.000000
-4010.081482 -1075.460112 228.000000
-4010.144831 -1077.459109 228.000000
-4010.208179 -1079.458105 228.000000
-4010.271528 -1081.457101 228.000000
-4010.334876 -1083.456098 228.000000
-4010.398225 -1085.455094 228.000000
-4010.461573 -1087.454091 228.000000
-4010.524922 -1089.453087 228.000000
-4010.588270 -1091.452084 228.000000
-4010.651619 -1093.451080 228.000000
-4010.714967 -1095.450077 228.000000
-4010.778316 -1097.449073 228.000000
-4010.841664 -1099.448070 228.000000
-4010.905013 -1101.447066 228.000000
-4010.968361 -1103.446063 228.000000
-4011.031710 -1105.445059 228.000000
-4011.095058 -1107.444056 228.000000
-4011.158407 -1109.443052 228.000000
-4011.221755 -1111.442049 228.000000
-4011.285104 -1113.441045 228.000000
-4011.348452 -1115.440042 228.000000
-4011.411801 -1117.439038 228.000000
-4011.475149 -1119.438035 228.000000
-4011.538497 -1121.437031 228.000000
-4011.601846 -1123.436028 228.000000
-4011.665194 -1125.435024 228.000000
-4011.728543 -1127.434021 228.000000
-4011.791891 -1129.433017 228.000000
-4011.855240 -1131.432014 228.000000
-4011.918588 -1133.431010 228.000000
-4012.000000 -1136.000000 228.000000
-4012.068078 -1137.565802 229.242429
-4012.136157 -1139.131603 230.484859
-4012.204235 -1140.697405 231.727288
-4012.272313 -1142.263206 232.969718
-4012.340392 -1143.829008 234.212147
-4012.408470 -1145.394809 235.454577
-4012.476548 -1146.960611 236.697006
-4012.544627 -1148.526412 237.939436
-4012.612705 -1150.092214 239.181865
-4012.680783 -1151.658015 240.424295
-4012.748862 -1153.223817 241.666724
-4012.816940 -1154.789618 242.909154
-4012.885018 -1156.355420 244.151583
-4012.953097 -1157.921221 245.394012
-4013.021175 -1159.487023 246.636442
-4013.089253 -1161.052824 247.878871
-4013.157332 -1162.618626 249.121301
-4013.225410 -1164.184427 250.363730
-4013.293488 -1165.750229 251.606160
-4013.361567 -1167.316030 252.848589
-4013.429645 -1168.881832 254.091019
-4013.497723 -1170.447633 255.333448
-4013.565802 -1172.013435 256.575878
-4013.633880 -1173.579236 257.818307
-4013.701958 -1175.145038 259.060737
-4013.770036 -1176.710839 260.303166
-4013.838115 -1178.276641 261.545595
-4013.906193 -1179.842442 262.788025
-4013.974271 -1181.408244 264.030454
-4014.042350 -1182.974045 265.272884
-4014.110428 -1184.539847 266.515313
-4014.178506 -1186.105648 267.757743
-4014.246585 -1187.671450 269.000172
-4014.314663 -1189.237251 270.242602
-4014.382741 -1190.803053 271.485031
-4014.450820 -1192.368854 272.727461
-4014.518898 -1193.934656 273.969890
-4014.586976 -1195.500457 275.212320
-4014.655055 -1197.066259 276.454749
-4014.723133 -1198.632060 277.697178
-4014.791211 -1200.197862 278.939608
-4014.859290 -1201.763664 280.182037
-4014.927368 -1203.329465 281.424467
-4014.995446 -1204.895267 282.666896
-4015.063525 -1206.461068 283.909326
-4015.131603 -1208.026870 285.151755
-4015.199681 -1209.592671 286.394185
-4015.267760 -1211.158473 287.636614
-4015.335838 -1212.724274 288.879044
-4015.403916 -1214.290076 290.121473
-4015.471995 -1215.855877 291.363903
-4015.540073 -1217.421679 292.606332
-4015.608151 -1218.987480 293.848761
-4015.676230 -1220.553282 295.091191
-4015.744308 -1222.119083 296.333620
-4015.812386 -1223.684885 297.576050
-4015.880465 -1225.250686 298.818479
-4015.948543 -1226.816488 300.060909
-4016.016621 -1228.382289 301.303338
-4016.084700 -1229.948091 302.545768
-4016.152778 -1231.513892 303.788197
-4016.220856 -1233.079694 305.030627
-4016.288935 -1234.645495 306.273056
-4016.357013 -1236.211297 307.515485
-4016.425091 -1237.777098 308.757915
-4016.493170 -1239.342900 310.000344
-4016.561248 -1240.908701 311.242774
-4016.629326 -1242.474503 312.485203
-4016.697405 -1244.040304 313.727633
-4016.765483 -1245.606106 314.970062
-4016.833561 -1247.171907 316.212492
-4016.901640 -1248.737709 317.454921
-4016.969718 -1250.303510 318.697351
-4017.037796 -1251.869312 319.939780
-4017.105874 -1253.435113 321.182210
-4017.173953 -1255.000915 322.424639
-4017.242031 -1256.566716 323.667068
-4017.310109 -1258.132518 324.909498
-4017.378188 -1259.698319 326.151927
-4017.446266 -1261.264121 327.394357
-4017.514344 -1262.829923 328.636786
-4017.582423 -1264.395724 329.879216
-4017.650501 -1265.961526 331.121645
-4017.718579 -1267.527327 332.364075
-4017.786658 -1269.093129 333.606504
-4017.854736 -1270.658930 334.848934
-4017.922814 -1272.224732 336.091363
-4017.990893 -1273.790533 337.333793
-4018.058971 -1275.356335 338.576222
-4018.127049 -1276.922136 339.818651
-4018.195128 -1278.487938 341.061081
-4018.263206 -1280.053739 342.303510
-4018.331284 -1281.619541 343.545940
-4018.399363 -1283.185342 344.788369
-4018.467441 -1284.751144 346.030799
-4018.535519 -1286.316945 347.273228
-4018.603598 -1287.882747 348.515658
-4018.671676 -1289.448548 349.758087
-4018.739754 -1291.014350 351.000517
-4018.807833 -1292.580151 352.242946
-4018.875911 -1294.145953 353.485376
-4018.943989 -1295.711754 354.727805
-4019.012068 -1297.277556 355.970234
-4019.080146 -1298.843357 357.212664
-4019.148224 -1300.409159 358.455093
-4019.216303 -1301.974960 359.697523
-4019.284381 -1303.540762 360.939952
-4019.352459 -1305.106563 362.182382
-4019.420538 -1306.672365 363.424811
-4019.488616 -1308.238166 364.667241
-4019.556694 -1309.803968 365.909670
-4019.624773 -1311.369769 367.152100
-4019.692851 -1312.935571 368.394529
-4019.760929 -1314.501372 369.636959
-4019.829008 -1316.067174 370.879388
-4019.897086 -1317.632975 372.121817
-4019.965164 -1319.198777 373.364247
-4020.033243 -1320.764578 374.606676
-4020.101321 -1322.330380 375.849106
-4020.169399 -1323.896181 377.091535
-4020.237478 -1325.461983 378.333965
-4020.305556 -1327.027785 379.576394
-4020.373634 -1328.593586 380.818824
-4020.441713 -1330.159388 382.061253
-4020.509791 -1331.725189 383.303683
-4020.577869 -1333.290991 384.546112
-4020.645947 -1334.856792 385.788542
-4020.714026 -1336.422594 387.030971
-4020.782104 -1337.988395 388.273400
-4020.850182 -1339.554197 389.515830
-4020.918261 -1341.119998 390.758259
-4020.986339 -1342.685800 392.000689
-4021.054417 -1344.251601 393.243118
-4021.122496 -1345.817403 394.485548
-4021.190574 -1347.383204 395.727977
-4021.258652 -1348.949006 396.970407
-4021.326731 -1350.514807 398.212836
-4021.394809 -1352.080609 399.455266
-4021.462887 -1353.646410 400.697695
-4021.530966 -1355.212212 401.940125
-4021.599044 -1356.778013 403.182554
-4021.667122 -1358.343815 404.424983
-4021.735201 -1359.909616 405.667413
-4021.803279 -1361.475418 406.909842
-4021.871357 -1363.041219 408.152272
-4021.939436 -1364.607021 409.394701
-4022.007514 -1366.172822 410.637131
-4022.075592 -1367.738624 411.879560
-4022.143671 -1369.304425 413.121990
-4022.211749 -1370.870227 414.364419
-4022.279827 -1372.436028 415.606849
-4022.347906 -1374.001830 416.849278
-4022.415984 -1375.567631 418.091708
-4022.484062 -1377.133433 419.334137
-4022.552141 -1378.699234 420.576566
-4022.620219 -1380.265036 421.818996
-4022.688297 -1381.830837 423.061425
-4022.756376 -1383.396639 424.303855
-4022.824454 -1384.962440 425.546284
-4022.892532 -1386.528242 426.788714
-4022.960611 -1388.094043 428.031143
-4023.028689 -1389.659845 429.273573
-4023.096767 -1391.225647 430.516002
-4023.164846 -1392.791448 431.758432
-4023.232924 -1394.357250 433.000861
-4023.301002 -1395.923051 434.243291
-4023.369081 -1397.488853 435.485720
-4023.437159 -1399.054654 436.728149
-4023.505237 -1400.620456 437.970579
-4023.573316 -1402.186257 439.213008
-4023.641394 -1403.752059 440.455438
-4023.709472 -1405.317860 441.697867
-4023.777551 -1406.883662 442.940297
-4023.845629 -1408.449463 444.182726
-4023.913707 -1410.015265 445.425156
-4023.981785 -1411.581066 446.667585
-4024.049864 -1413.146868 447.910015
-4024.117942 -1414.712669 449.152444
-4024.186020 -1416.278471 450.394874
-4024.254099 -1417.844272 451.637303
-4024.322177 -1419.410074 452.879732
-4024.390255 -1420.975875 454.122162
-4024.458334 -1422.541677 455.364591
-4024.526412 -1424.107478 456.607021
-4024.594490 -1425.673280 457.849450
-4024.662569 -1427.239081 459.091880
-4024.730647 -1428.804883 460.334309
-4024.798725 -1430.370684 461.576739
-4024.866804 -1431.936486 462.819168
-4024.934882 -1433.502287 464.061598
-4025.002960 -1435.068089 465.304027
-4025.071039 -1436.633890 466.546456
-4025.139117 -1438.199692 467.788886
-4025.207195 -1439.765493 469.031315
-4025.275274 -1441.331295 470.273745
-4025.343352 -1442.897096 471.516174
-4025.411430 -1444.462898 472.758604
-4025.479509 -1446.028699 474.001033
-4025.547587 -1447.594501 475.243463
-4025.615665 -1449.160302 476.485892
-4025.683744 -1450.726104 477.728322
-4025.751822 -1452.291905 478.970751
-4025.819900 -1453.857707 480.213181
-4025.887979 -1455.423509 481.455610
-4025.956057 -1456.989310 482.698039
-4026.024135 -1458.555112 483.940469
-4026.092214 -1460.120913 485.182898
-4026.160292 -1461.686715 486.425328
-4026.228370 -1463.252516 487.667757
-4026.296449 -1464.818318 488.910187
-4026.364527 -1466.384119 490.152616
-4026.432605 -1467.949921 491.395046
-4026.500684 -1469.515722 492.637475
-4026.568762 -1471.081524 493.879905
-4026.636840 -1472.647325 495.122334
-4026.704919 -1474.213127 496.364764
-4026.772997 -1475.778928 497.607193
-4026.841075 -1477.344730 498.849622
-4026.909154 -1478.910531 500.092052
-4026.977232 -1480.476333 501.334481
-4027.045310 -1482.042134 502.576911
-4027.113389 -1483.607936 503.819340
-4027.181467 -1485.173737 505.061770
-4027.249545 -1486.739539 506.304199
-4027.317623 -1488.305340 507.546629
-4027.385702 -1489.871142 508.789058
-4027.453780 -1491.436943 510.031488
-4027.521858 -1493.002745 511.273917
-4027.589937 -1494.568546 512.516347
-4027.658015 -1496.134348 513.758776
-4027.726093 -1497.700149 515.001205
-4027.794172 -1499.265951 516.243635
-4027.862250 -1500.831752 517.486064
-4027.930328 -1502.397554 518.728494
-4028.000000 -1504.000000 520.000000
-4028.000000 -1506.000000 520.000000
-4028.000000 -1508.000000 520.000000
-4028.000000 -1510.000000 520.000000
-4028.000000 -1512.000000 520.000000
-4028.000000 -1514.000000 520.000000
-4028.000000 -1516.000000 520.000000
-4028.000000 -1518.000000 520.000000
-4028.000000 -1520.000000 520.000000
-4028.000000 -1522.000000 520.000000
-4028.000000 -1524.000000 520.000000
-4028.000000 -1526.000000 520.000000
-4028.000000 -1528.000000 520.000000
-4028.000000 -1530.000000 520.000000
-4028.000000 -1532.000000 520.000000
-4028.000000 -1534.000000 520.000000
-4028.000000 -1536.000000 520.000000
-4028.000000 -1538.000000 520.000000
-4028.000000 -1540.000000 520.000000
-4028.000000 -1542.000000 520.000000
-4028.000000 -1544.000000 520.000000
-4028.000000 -1546.000000 520.000000
-4028.000000 -1548.000000 520.000000
-4028.000000 -1550.000000 520.000000
-4028.000000 -1552.000000 520.000000
-4028.000000 -1554.000000 520.000000
-4028.000000 -1556.000000 520.000000
-4028.000000 -1558.000000 520.000000
-4028.000000 -1560.000000 520.000000
-4028.000000 -1562.000000 520.000000
-4028.000000 -1564.000000 520.000000
-4028.000000 -1566.000000 520.000000
-4028.000000 -1568.000000 520.000000
-4028.000000 -1570.000000 520.000000
-4028.000000 -1572.000000 520.000000
-4028.000000 -1574.000000 520.000000
-4028.000000 -1576.000000 520.000000
-4028.000000 -1578.000000 520.000000
-4028.000000 -1580.000000 520.000000
-4028.000000 -1582.000000 520.000000
-4028.000000 -1584.000000 520.000000
-4028.000000 -1586.000000 520.000000
-4028.000000 -1588.000000 520.000000
-4028.000000 -1590.000000 520.000000
-4028.000000 -1592.000000 520.000000
-4028.000000 -1594.000000 520.000000
-4028.000000 -1596.000000 520.000000
-4028.000000 -1598.000000 520.000000
-4028.000000 -1600.000000 520.000000
-4028.000000 -1602.000000 520.000000
-4028.000000 -1604.000000 520.000000
-4028.000000 -1606.000000 520.000000
-4028.000000 -1608.000000 520.000000
-4028.000000 -1610.000000 520.000000
-4028.000000 -1612.000000 520.000000
-4028.000000 -1614.000000 520.000000
-4028.000000 -1616.000000 520.000000
-4028.000000 -1618.000000 520.000000
-4028.000000 -1620.000000 520.000000
-4028.000000 -1622.000000 520.000000
-4028.000000 -1624.000000 520.000000
-4028.000000 -1626.000000 520.000000
-4028.000000 -1628.000000 520.000000
-4028.000000 -1630.000000 520.000000
-4028.000000 -1632.000000 520.000000
-4028.000000 -1634.000000 520.000000
-4028.000000 -1636.000000 520.000000
-4028.000000 -1638.000000 520.000000
-4028.000000 -1640.000000 520.000000
-4028.000000 -1642.000000 520.000000
-4028.000000 -1644.000000 520.000000
-4028.000000 -1646.000000 520.000000
-4028.000000 -1648.000000 520.000000
-4028.000000 -1650.000000 520.000000
-4028.000000 -1652.000000 520.000000
-4028.000000 -1654.000000 520.000000
-4028.000000 -1656.000000 520.000000
-4028.000000 -1658.000000 520.000000
-4028.000000 -1660.000000 520.000000
-4028.000000 -1662.000000 520.000000
-4028.000000 -1664.000000 520.000000
-4028.000000 -1666.000000 520.000000
-4028.000000 -1668.000000 520.000000
-4028.000000 -1670.000000 520.000000
-4028.000000 -1672.000000 520.000000
-4028.000000 -1674.000000 520.000000
-4028.000000 -1676.000000 520.000000
-4028.000000 -1678.000000 520.000000
-4028.000000 -1680.000000 520.000000
-4028.000000 -1682.000000 520.000000
-4028.000000 -1684.000000 520.000000
-4028.000000 -1686.000000 520.000000
-4028.000000 -1688.000000 520.000000
-4028.000000 -1690.000000 520.000000
-4028.000000 -1692.000000 520.000000
-4028.000000 -1694.000000 520.000000
-4028.000000 -1696.000000 520.000000
-4028.000000 -1698.000000 520.000000
-4028.000000 -1700.000000 520.000000
-4028.000000 -1702.000000 520.000000
-4028.000000 -1704.000000 520.000000
-4028.000000 -1706.000000 520.000000
-4028.000000 -1708.000000 520.000000
-4028.000000 -1710.000000 520.000000
-4028.000000 -1712.000000 520.000000
-4028.000000 -1714.000000 520.000000
-4028.000000 -1716.000000 520.000000
-4028.000000 -1718.000000 520.000000
-4028.000000 -1720.000000 520.000000
-4028.000000 -1722.000000 520.000000
-4028.000000 -1724.000000 520.000000
-4028.000000 -1726.000000 520.000000
-4028.000000 -1728.000000 520.000000
-4028.000000 -1730.000000 520.000000
-4028.000000 -1732.000000 520.000000
-4028.000000 -1734.000000 520.000000
-4028.000000 -1736.000000 520.000000
-4028.000000 -1738.000000 520.000000
-4028.000000 -1740.000000 520.000000
-4028.000000 -1742.000000 520.000000
-4028.000000 -1744.000000 520.000000
-4028.000000 -1746.000000 520.000000
-4028.000000 -1748.000000 520.000000
-4028.000000 -1750.000000 520.000000
-4028.000000 -1752.000000 520.000000
-4028.000000 -1754.000000 520.000000
-4028.000000 -1756.000000 520.000000
-4028.000000 -1758.000000 520.000000
-4028.000000 -1760.000000 520.000000
-4028.000000 -1762.000000 520.000000
-4028.000000 -1764.000000 520.000000
-4028.000000 -1766.000000 520.000000
-4028.000000 -1768.000000 520.000000
-4028.000000 -1770.000000 520.000000
-4028.000000 -1772.000000 520.000000
-4028.000000 -1774.000000 520.000000
-4028.000000 -1776.000000 520.000000
-4028.000000 -1778.000000 520.000000
-4028.000000 -1780.000000 520.000000
-4028.000000 -1782.000000 520.000000
-4028.000000 -1784.000000 520.000000
-4028.000000 -1786.000000 520.000000
-4028.000000 -1788.000000 520.000000
-4028.000000 -1790.000000 520.000000
-4028.000000 -1792.000000 520.000000
-4028.000000 -1794.000000 520.000000
-4028.000000 -1796.000000 520.000000
-4028.000000 -1798.000000 520.000000
-4028.000000 -1800.000000 520.000000
-4028.000000 -1802.000000 520.000000
-4028.000000 -1804.000000 520.000000
-4028.000000 -1806.000000 520.000000
-4028.000000 -1808.000000 520.000000
-4028.000000 -1810.000000 520.000000
-4028.000000 -1812.000000 520.000000
-4028.000000 -1814.000000 520.000000
-4028.000000 -1816.000000 520.000000
-4028.000000 -1818.000000 520.000000
-4028.000000 -1820.000000 520.000000
-4028.000000 -1822.000000 520.000000
-4028.000000 -1824.000000 520.000000
-4028.000000 -1826.000000 520.000000
-4028.000000 -1828.000000 520.000000
-4028.000000 -1830.000000 520.000000
-4028.000000 -1832.000000 520.000000
-4028.000000 -1834.000000 520.000000
-4028.000000 -1836.000000 520.000000
-4028.000000 -1838.000000 520.000000
-4028.000000 -1840.000000 520.000000
-4028.000000 -1842.000000 520.000000
-4028.000000 -1844.000000 520.000000
-4028.000000 -1846.000000 520.000000
-4028.000000 -1848.000000 520.000000
-4028.000000 -1850.000000 520.000000
-4028.000000 -1852.000000 520.000000
-4028.000000 -1854.000000 520.000000
-4028.000000 -1856.000000 520.000000
-4028.000000 -1858.000000 520.000000
-4028.000000 -1860.000000 520.000000
-4028.000000 -1862.000000 520.000000
-4028.000000 -1864.000000 520.000000
-4028.000000 -1866.000000 520.000000
-4028.000000 -1868.000000 520.000000
-4028.000000 -1870.000000 520.000000
-4028.000000 -1872.000000 520.000000
-4028.000000 -1874.000000 520.000000
-4028.000000 -1876.000000 520.000000
-4028.000000 -1878.000000 520.000000
-4028.000000 -1880.000000 520.000000
-4028.000000 -1882.000000 520.000000
-4028.000000 -1884.000000 520.000000
-4028.000000 -1886.000000 520.000000
-4028.000000 -1888.000000 520.000000
-4028.000000 -1890.000000 520.000000
-4028.000000 -1892.000000 520.000000
-4028.000000 -1894.000000 520.000000
-4028.000000 -1896.000000 520.000000
-4028.000000 -1898.000000 520.000000
-4028.000000 -1900.000000 520.000000
-4028.000000 -1902.000000 520.000000
-4028.000000 -1904.000000 520.000000
-4028.000000 -1906.000000 520.000000
-4028.000000 -1908.000000 520.000000
-4028.000000 -1910.000000 520.000000
-4028.000000 -1912.000000 520.000000
-4028.000000 -1914.000000 520.000000
-4028.000000 -1916.000000 520.000000
-4028.000000 -1918.000000 520.000000
-4028.000000 -1920.000000 520.000000
-4028.000000 -1922.000000 520.000000
-4028.000000 -1924.000000 520.000000
-4028.000000 -1926.000000 520.000000
-4028.000000 -1928.000000 520.000000
-4028.000000 -1930.000000 520.000000
-4028.000000 -1932.000000 520.000000
-4028.000000 -1934.000000 520.000000
-4028.000000 -1936.000000 520.000000
-4028.000000 -1938.000000 520.000000
-4028.000000 -1940.000000 520.000000
-4028.000000 -1942.000000 520.000000
-4028.000000 -1944.000000 520.000000
-4028.000000 -1946.000000 520.000000
-4028.000000 -1948.000000 520.000000
-4028.000000 -1950.000000 520.000000
-4028.000000 -1952.000000 520.000000
-4028.000000 -1954.000000 520.000000
-4028.000000 -1956.000000 520.000000
-4028.000000 -1958.000000 520.000000
-4028.000000 -1960.000000 520.000000
-4028.000000 -1962.000000 520.000000
-4028.000000 -1964.000000 520.000000
-4028.000000 -1966.000000 520.000000
-4028.000000 -1968.000000 520.000000
-4028.000000 -1970.000000 520.000000
-4028.000000 -1972.000000 520.000000
-4028.000000 -1974.000000 520.000000
-4028.000000 -1976.000000 520.000000
-4028.000000 -1978.000000 520.000000
-4028.000000 -1980.000000 520.000000
-4028.000000 -1982.000000 520.000000
-4028.000000 -1984.000000 520.000000
-4028.000000 -1986.000000 520.000000
-4028.000000 -1988.000000 520.000000
-4028.000000 -1990.000000 520.000000
-4028.000000 -1992.000000 520.000000
-4028.000000 -1994.000000 520.000000
-4028.000000 -1996.000000 520.000000
-4028.000000 -1998.000000 520.000000
-4028.000000 -2000.000000 520.000000
-4028.000000 -2002.000000 520.000000
-4028.000000 -2004.000000 520.000000
-4028.000000 -2006.000000 520.000000
-4028.000000 -2008.000000 520.000000
-4028.000000 -2010.000000 520.000000
-4028.000000 -2012.000000 520.000000
-4028.000000 -2014.000000 520.000000
-4028.000000 -2016.000000 520.000000
-4028.000000 -2018.000000 520.000000
-4028.000000 -2020.000000 520.000000
-4028.000000 -2022.000000 520.000000
-4028.000000 -2024.000000 520.000000
-4028.000000 -2026.000000 520.000000
-4028.000000 -2028.000000 520.000000
-4028.000000 -2032.000000 520.000000
-4028.000000 -2034.000000 520.000000
-4028.000000 -2036.000000 520.000000
-4028.000000 -2038.000000 520.000000
-4028.000000 -2040.000000 520.000000
-4028.000000 -2042.000000 520.000000
-4028.000000 -2044.000000 520.000000
-4028.000000 -2046.000000 520.000000
-4028.000000 -2048.000000 520.000000
-4028.000000 -2050.000000 520.000000
-4028.000000 -2052.000000 520.000000
-4028.000000 -2054.000000 520.000000
-4028.000000 -2056.000000 520.000000
-4028.000000 -2058.000000 520.000000
-4028.000000 -2060.000000 520.000000
-4028.000000 -2062.000000 520.000000
-4028.000000 -2064.000000 520.000000
-4028.000000 -2066.000000 520.000000
-4028.000000 -2068.000000 520.000000
-4028.000000 -2070.000000 520.000000
-4028.000000 -2072.000000 520.000000
-4028.000000 -2074.000000 520.000000
-4028.000000 -2076.000000 520.000000
-4028.000000 -2078.000000 520.000000
-4028.000000 -2080.000000 520.000000
-4028.000000 -2082.000000 520.000000
-4028.000000 -2084.000000 520.000000
-4028.000000 -2086.000000 520.000000
-4028.000000 -2088.000000 520.000000
-4028.000000 -2090.000000 520.000000
-4028.000000 -2092.000000 520.000000
-4028.000000 -2094.000000 520.000000
-4028.000000 -2096.000000 520.000000
-4028.000000 -2098.000000 520.000000
-4028.000000 -2100.000000 520.000000
-4028.000000 -2102.000000 520.000000
-4028.000000 -2104.000000 520.000000
-4028.000000 -2106.000000 520.000000
-4028.000000 -2108.000000 520.000000
-4028.000000 -2110.000000 520.000000
-4028.000000 -2112.000000 520.000000
-4028.000000 -2114.000000 520.000000
-4028.000000 -2116.000000 520.000000
-4028.000000 -2118.000000 520.000000
-4028.000000 -2120.000000 520.000000
-4028.000000 -2122.000000 520.000000
-4028.000000 -2124.000000 520.000000
-4028.000000 -2126.000000 520.000000
-4028.000000 -2128.000000 520.000000
-4028.000000 -2130.000000 520.000000
-4028.000000 -2132.000000 520.000000
-4028.000000 -2134.000000 520.000000
-4028.000000 -2136.000000 520.000000
-4028.000000 -2138.000000 520.000000
-4028.000000 -2140.000000 520.000000
-4028.000000 -2142.000000 520.000000
-4028.000000 -2144.000000 520.000000
-4028.000000 -2146.000000 520.000000
-4028.000000 -2148.000000 520.000000
-4028.000000 -2150.000000 520.000000
-4028.000000 -2152.000000 520.000000
-4028.000000 -2154.000000 520.000000
-4028.000000 -2156.000000 520.000000
-4028.000000 -2158.000000 520.000000
-4028.000000 -2160.000000 520.000000
-4028.000000 -2162.000000 520.000000
-4028.000000 -2164.000000 520.000000
-4028.000000 -2166.000000 520.000000
-4028.000000 -2168.000000 520.000000
-4028.000000 -2170.000000 520.000000
-4028.000000 -2172.000000 520.000000
-4028.000000 -2174.000000 520.000000
-4028.000000 -2176.000000 520.000000
-4028.000000 -2178.000000 520.000000
-4028.000000 -2180.000000 520.000000
-4028.000000 -2182.000000 520.000000
-4028.000000 -2184.000000 520.000000
-4028.000000 -2186.000000 520.000000
-4028.000000 -2188.000000 520.000000
-4028.000000 -2192.000000 520.000000
-4028.000000 -2194.000000 520.000000
-4028.000000 -2196.000000 520.000000
-4028.000000 -2198.000000 520.000000
-4028.000000 -2200.000000 520.000000
-4028.000000 -2202.000000 520.000000
-4028.000000 -2204.000000 520.000000
-4028.000000 -2206.000000 520.000000
-4028.000000 -2208.000000 520.000000
-4028.000000 -2210.000000 520.000000
-4028.000000 -2212.000000 520.000000
-4028.000000 -2214.000000 520.000000
-4028.000000 -2216.000000 520.000000
-4028.000000 -2218.000000 520.000000
-4028.000000 -2220.000000 520.000000
-4028.000000 -2222.000000 520.000000
-4028.000000 -2224.000000 520.000000
-4028.000000 -2226.000000 520.000000
-4028.000000 -2228.000000 520.000000
-4028.000000 -2230.000000 520.000000
-4028.000000 -2232.000000 520.000000
